102.44983170133068 198.6557601646717 -51.77495844333314
84.35204374590788 168.7962160236089 -43.492749000052456
57.649215079679955 119.33780139496996 -29.775339609618854
53.40677537473736 118.40455173202545 -29.516520564516345
49.44651125390426 113.73824351703361 -28.222425339003706
52.30288444420217 124.93722320871701 -31.328253880233923
46.47053806367951 115.60477917991398 -28.74006342920877
43.10544185442837 111.87169036230596 -27.704787248798656
62.69860964495199 169.7293437977858 -43.75156804515496
58.2179886704963 173.4618422908083 -44.786844225565034
54.06436576863027 169.7293437977858 -43.75156804515496
49.740126189308334 165.0636916700195 -42.45747281964236
46.893172763850636 165.0636916700195 -42.45747281964236
44.031935223704714 165.0636916700195 -42.45747281964236
40.45624930882918 162.26428383259704 -41.68101568433477
33.36298096561523 155.7322794828411 -39.869282368617164
29.88133210073021 151.9996695186534 -38.83400618820701
30.04532159105439 167.8630869462564 -43.23392995494991
24.649268826019107 152.9328246206319 -39.09282523330958
24.08030208753397 167.8630869462564 -43.23392995494991
18.967433385193974 151.06651262120758 -38.575187143104564
13.90144115962374 154.7991295706269 -39.610463323514615
11.732653967796258 163.1974212147434 -41.939834729437315
8.650961095113269 160.39800463155066 -41.16337759412978
4.926013664761986 137.06891821285961 -34.692901466566724
0.052726611854693156 2.3968519062103395 2.318221983093763
1.8499304571486358e-16 2.3968519062103395 2.318221983093763
-0.10543716267264132 2.3968519062103395 2.318221983093763
-0.15811559630944705 2.3968519062103395 2.318221983093763
-0.2107458664039174 2.3968519062103395 2.318221983093763
-15.585160816211145 173.4618422908083 -44.786844225565034
-16.975310280428094 157.59857433638697 -40.386920458822175
-23.94587119499185 166.9299565434719 -42.97511090984739
-27.36914244429245 169.7293437977858 -43.75156804515496
-31.387171667026536 175.32808426178084 -45.30448231577005
-35.04193752335952 178.12743855999466 -46.08093945107765
-36.7770445853363 171.59559552317432 -44.26920613536005
-41.52938862325608 179.06055442396755 -46.33975849618022
-46.031935223704735 172.5287195164761 -44.528025180462514
-50.62060613328199 178.12743855999466 -46.08093945107765
-56.51795132053679 187.45855021078205 -48.669129902102874
-60.63109067246794 190.25786456195377 -49.445587037410384
-45.639001126198806 136.1357272755495 -34.43408242146418
-60.49919564742829 171.59559552317432 -44.26920613536005
-64.09228848458706 165.99682479248958 -42.71629186474489
-67.98332348782259 168.7962160236089 -43.492749000052456
-73.12538813058895 174.39496386608295 -45.04566327066754
-76.79711013024547 176.26120349696308 -45.563301360872664
-82.20028820321714 181.85989555454228 -47.11621563148778
-83.81355646428463 179.06055442396755 -46.33975849618022
-98.86903786981719 197.72266398281133 -51.5161393982306
-100.51798004875246 194.92337056434167 -50.7396822629231
104.8663971403497 202.4024743069446 -56.95500343040288
1.4842590289096345 2.445046296715894 2.3070280702519645
89.8891671162825 184.84439059196654 -51.71789366987992
56.37676877022884 120.1524938533971 -32.42327876268995
59.38714316382231 135.86429960391874 -37.10911381157887
55.98248603939136 133.09168775350804 -36.2822017441279
55.65749068458191 137.7126951348442 -37.660388523212916
55.881304527403735 144.1820076976637 -39.5898500139319
64.82694995028491 174.67903181300724 -48.685882755892926
67.78759000375823 191.31319364082168 -53.647355160598835
56.49370410805541 176.52728841934504 -49.23715746752685
51.483334374695694 170.05837006929593 -47.30769597680785
49.33148461591134 172.8307706587662 -48.13460804425887
45.82388517837693 170.98250480623665 -47.583333332624846
42.83224660574449 170.98250480623665 -47.583333332624846
40.26003457987396 172.8307706587662 -48.13460804425887
32.31537387738615 163.589391162853 -45.378234486088864
31.578998612775997 175.60316067551696 -48.961520111709895
26.192961271311862 161.7410993147677 -44.8269597744549
26.647309702964975 184.84439059196654 -51.71789366987992
20.171174670187717 159.8928017111832 -44.275685062820884
18.20531599163624 168.2100968725985 -46.756421265173884
12.216268012381294 169.1342340983315 -47.03205862099091
9.064841442032503 167.28595837088434 -46.4807839093569
5.306715999147208 146.95453867453585 -40.41676208138286
0.05343105984071938 2.445046296715894 2.3070280702519645
1.8746462456088977e-16 2.445046296715894 2.3070280702519645
-0.10684584406301309 2.445046296715894 2.3070280702519645
-0.16022808200616664 2.445046296715894 2.3070280702519645
-0.21356151292337752 2.445046296715894 2.3070280702519645
-16.268710014051095 180.22378855843976 -50.339706890794865
-18.004357575887237 166.36181857149592 -46.20514655353991
-21.694102982606474 171.906638329444 -47.85897068844187
-27.696705862989646 170.98250480623665 -47.583333332624846
-31.07823458749385 172.8307706587662 -48.13460804425887
-34.516382419337454 174.67903181300724 -48.685882755892926
-36.21117073156079 168.2100968725985 -46.756421265173884
-38.74637675586205 166.36181857149592 -46.20514655353991
-41.43694509585196 165.43767745224577 -45.92950919772292
-49.596444248027915 173.75490181362088 -48.410245400075866
-55.41797446486186 182.99615275285896 -51.166618958245806
-57.38484270831527 179.29966511495897 -50.06406953497788
-40.11626109638022 119.22824131761034 -32.147641406872935
-59.897089291319006 169.1342340983315 -47.03205862099091
-61.382096120786365 165.43767745224577 -45.92950919772292
-69.55450077199909 171.906638329444 -47.85897068844187
-72.01268060764674 170.98250480623665 -47.583333332624846
-76.44950653846776 174.67903181300724 -48.685882755892926
-79.72051317973391 175.60316067551696 -48.961520111709895
-83.87020046655869 178.37554062181607 -49.78843217916084
-89.43788208564406 183.9202721579842 -51.44225631406286
-87.08305576549074 168.2100968725985 -46.756421265173884
101.48469304380454 194.95069997567427 -58.81055487274062
1.503730164920979 2.4933164671414576 2.295131414311285
85.86023923033018 175.74389501713134 -52.67074907356317
66.0969765779648 140.07268732748534 -41.268252589376445
53.34252747543417 117.20488536712169 -33.95895997130806
56.10552208297784 132.75517683051936 -38.9292789515946
52.403078648435645 129.09636210819815 -37.75979213270362
51.31524367398461 131.84047710548796 -38.63690724687184
67.25437912012659 180.3169814957744 -54.13260759717686
65.82178813373457 184.89004311817638 -55.59446612079058
58.91949382640276 173.91465301744842 -52.086005664117764
50.95461186490038 167.5122700775142 -50.03940373105852
47.510958835744255 165.68300690275873 -49.4546603216131
47.334635133167424 175.74389501713134 -52.67074907356317
41.69950473234145 165.68300690275873 -49.4546603216131
38.98940274296857 166.59763912323166 -49.747032026335866
34.44545763449317 159.28054403186707 -47.408058388553904
30.927688983941728 171.170781647342 -51.208890549949466
25.16905032392094 154.7073131268384 -45.94619986494026
24.521305707966793 169.34152827134298 -50.62414714050404
20.65669766918756 162.93910242619268 -48.57754520744488
17.917362821756786 164.7683733945423 -49.16228861689031
11.957049880657875 164.7683733945423 -49.16228861689031
8.670681078281278 159.28054403186707 -47.408058388553904
5.047681585156778 139.15800654531475 -40.975880884653726
0.05413199102127836 2.4933164671414576 2.295131414311285
1.8992386457967695e-16 2.4933164671414576 2.295131414311285
-0.05413199102127867 2.4933164671414576 2.295131414311285
-0.16233002157117024 2.4933164671414576 2.295131414311285
-0.21636310293154098 2.4933164671414576 2.295131414311285
-15.85630367092209 174.8292745634067 -52.37837736884043
-17.317596422418575 159.28054403186707 -47.408058388553904
-21.239418832709717 167.5122700775142 -50.03940373105852
-24.65439760631697 170.25615555165726 -50.91651884522675
-31.25981014027611 173.00003036156664 -51.793633959394946
-34.71401055687011 174.8292745634067 -52.37837736884043
-36.23490008323717 167.5122700775142 -50.03940373105852
-38.98940274296856 166.59763912323166 -49.747032026335866
-41.005451554340766 162.93910242619268 -48.57754520744488
-45.84957583057534 170.25615555165726 -50.91651884522675
-55.707751544401695 183.060821330356 -55.009722711345084
-60.356874267767864 187.63386893144127 -56.47158123495877
-44.28640222502082 130.92577478128166 -38.3445355421491
-60.58858029857463 170.25615555165726 -50.91651884522675
-61.428326553033415 164.7683733945423 -49.16228861689031
-64.21181408233956 164.7683733945423 -49.16228861689031
-72.8309820894844 172.08540657768725 -51.501262254672284
-75.67477279343565 172.08540657768725 -51.501262254672284
-81.849243528927 179.40236625061422 -53.84023589245409
-84.33141408860926 178.48774999625493 -53.54786418773136
-89.45190233658248 183.060821330356 -55.009722711345084
-98.40151099076589 194.95069997567427 -58.81055487274062
101.90728286238867 194.7457689103536 -62.92005017400551
1.5230976766534077 2.541640786499874 2.2825356391083687
81.84382903025234 166.70312563326965 -53.34052334838217
54.96583233672548 116.04179594192236 -36.03557166338516
63.914565030807 139.56394986639035 -44.07001351713373
57.19652015920565 129.61249458653552 -40.67082657900934
53.995785643226796 132.32655645473022 -41.59787756213417
50.34242110948304 128.7078021143851 -40.361809584634415
67.58735722791204 180.2722609631314 -57.97577826400643
65.15476017685016 182.0814616501961 -58.593812252756244
58.924322859430625 173.03541890394152 -55.50364230900688
55.63484885644994 172.1308089624963 -55.19462531463184
48.052360168459785 166.70312563326965 -53.34052334838217
44.87424201851848 165.79850762191094 -53.031506354007185
41.48443865264685 163.98926788535974 -52.41347236525735
38.78824296974607 164.89388837956224 -52.72248935963227
33.08184985991565 152.22907712329305 -48.39625143838303
31.26329714726157 172.1308089624963 -55.19462531463184
25.486167810527224 155.84762341580412 -49.632319415882804
25.056468018719528 172.1308089624963 -55.19462531463184
20.666180506729102 162.18002305555473 -51.79543837650748
19.117348871936674 174.84463556499432 -56.12167629775667
14.53089841269888 159.4661458723571 -50.86838739338256
8.924724365697925 163.08464611796572 -52.10445537088242
5.121542139173461 140.46861416631046 -44.379030511508724
0.05482919188594241 2.541640786499874 2.2825356391083687
1.923700166628922e-16 2.541640786499874 2.2825356391083687
-0.05482919188594272 2.541640786499874 2.2825356391083687
-0.10964168226889416 2.541640786499874 2.2825356391083687
-0.2191497830369517 2.541640786499874 2.2825356391083687
-15.940029042934873 174.84463556499432 -56.12167629775667
-17.725574206130368 162.18002305555473 -51.79543837650748
-21.47751293900362 168.51235804418087 -53.958557337132
-24.79174504959732 170.3215857702137 -54.576591325881985
-27.866616088121773 170.3215857702137 -54.576591325881985
-33.44554837643366 167.60774243404134 -53.64954034275715
-36.64109369050672 168.51235804418087 -53.958557337132
-38.78824296974605 164.89388837956224 -52.72248935963227
-41.94460144313592 165.79850762191094 -53.031506354007185
-45.85884817606266 169.41697248320673 -54.26757433150704
-49.6252403887645 172.1308089624963 -55.19462531463184
-58.86766774405852 182.0814616501961 -58.593812252756244
-42.51373597531329 125.08900476592373 -39.125741607134614
-59.62499191461078 166.70312563326965 -53.34052334838217
-60.429965581337825 161.27539867580003 -51.48642138213244
-67.08720707010369 171.22619792388346 -54.8856083202569
-68.1168663062519 166.70312563326965 -53.34052334838217
-76.08741119069532 172.1308089624963 -55.19462531463184
-78.92353151635014 172.1308089624963 -55.19462531463184
-85.62154657777609 180.2722609631314 -57.97577826400643
-90.7737088103081 184.7952557891452 -59.5208632358811
-98.81126220970137 194.7457689103536 -62.92005017400551
-96.20094376461768 183.8906586432428 -59.21184624150622
1.5423556645752288 2.589997452438041 2.2692445814383606
87.60901189328726 177.40656465220007 -60.890977383249975
60.25244257627609 126.44081436113055 -42.3335925791921
50.71869741004537 110.34488187822815 -36.4733657989633
51.29367945012889 115.71031568445792 -38.42677472570625
52.82730202742951 123.75823064138982 -41.35688811582062
44.04965637626013 112.13337528662697 -37.1245021078776
65.18153029335319 172.93606476433882 -59.26313661096425
66.41214297062015 184.55931568038304 -63.495522618907266
59.83142155996949 174.72426769678665 -59.91427291987854
55.91318137981868 172.0419617618829 -58.9375684565071
48.3097863323568 166.677321174761 -56.984159529764106
45.606830801477656 167.57143071470446 -57.30972768422132
41.94313780967803 164.8890986161254 -56.3330232208498
41.553167982172425 175.61836765882956 -60.239841074335686
34.27736922275921 156.84203566880896 -53.402909830735474
31.277319205246723 155.94791091947457 -53.077341676278245
25.051015873154217 152.37139751164463 -51.77506905844964
24.52386788263004 167.57143071470446 -57.30972768422132
20.783372542955572 162.20675578605645 -55.35631875747835
17.628423692363683 160.41852099779126 -54.70518244856406
14.533749761639907 158.63028101949922 -54.05404613964977
11.962096125810898 163.10087128867664 -55.68188691193547
5.32473132842754 145.21829582598343 -49.170523822792354
0.05552245006057421 2.589997452438041 2.2692445814383606
1.948023356889145e-16 2.589997452438041 2.2692445814383606
-0.05552245006057453 2.589997452438041 2.2692445814383606
-0.11102798744500203 2.589997452438041 2.2692445814383606
-0.16649970462890223 2.589997452438041 2.2692445814383606
-15.852267741448985 172.93606476433882 -59.26313661096425
-17.62842369236366 160.41852099779126 -54.70518244856406
-21.359521182883846 166.677321174761 -56.984159529764106
-24.52386788262998 167.57143071470446 -57.30972768422132
-27.713426339224885 168.4655391203095 -57.63529583867844
-31.091327420715388 170.25375260179223 -58.286432147592755
-36.43979724603615 166.677321174761 -56.984159529764106
-38.36273697493077 162.20675578605645 -55.35631875747835
-41.25691287127695 162.20675578605645 -55.35631875747835
-45.60683080147768 167.57143071470446 -57.30972768422132
-49.09164705251893 169.35964640999723 -57.96086399313557
-55.665830493914775 180.98294733111604 -62.19325000107869
-42.28506951318818 123.75823064138982 -41.35688811582062
-59.2976421982618 164.8890986161254 -56.3330232208498
-61.11540765501893 162.20675578605645 -55.35631875747835
-64.23891345541351 163.10087128867664 -55.68188691193547
-68.48178206748464 166.677321174761 -56.984159529764106
-71.28700049487324 166.677321174761 -56.984159529764106
-77.24593339697964 167.57143071470446 -57.30972768422132
-83.43229091134141 174.72426769678665 -59.91427291987854
-87.16511780995748 176.51246663889827 -60.56540922879287
-99.63920700101795 195.28834279666955 -67.40234047239315
-99.45185435987784 189.02975723321111 -65.12336339119305
99.80830304411829 188.59723848692397 -69.22694766517844
84.44998179066664 170.05195791708502 -62.04452465533943
55.21528638580154 115.29567970451473 -40.83927576914802
59.49463956642939 128.5438871094402 -45.96957791903311
58.94522231369383 132.0766416048121 -47.33765849233573
56.730113248013716 132.0766416048121 -47.33765849233573
44.15238731279114 111.76270451204903 -39.47119519584533
66.4848580533248 175.35064971765468 -64.0966455152935
64.41617456636298 177.9999828182344 -65.12270594527048
56.728592250878926 164.7532291620652 -59.992403795385435
53.84463692930206 164.7532291620652 -59.992403795385435
49.57058234243907 160.33759091729254 -58.28230307875707
43.3954275831058 158.57132715442134 -57.59826279210579
40.10766781438269 156.80505830199797 -56.91422250545449
36.87134186350506 155.03878418088127 -56.2301822188031
32.71083741346226 148.8567804740962 -53.83604121552341
30.020062846100874 148.8567804740962 -53.83604121552341
29.93095845545024 162.986977390918 -59.30836350873411
25.034883416758415 170.05195791708502 -62.04452465533943
18.944717749938825 147.09048018660596 -53.15200092887206
17.03485667891439 154.15564508627014 -55.88816207547739
13.71225119402793 148.8567804740962 -53.83604121552341
11.433664083568278 155.03878418088127 -56.2301822188031
8.52911719815145 154.15564508627014 -55.88816207547739
0.05621155437201805 2.6383645053173446 2.255262289886181
1.9722008074980624e-16 2.6383645053173446 2.255262289886181
-0.05621155437201838 2.6383645053173446 2.255262289886181
-0.11240598616004094 2.6383645053173446 2.255262289886181
-0.16856617799577867 2.6383645053173446 2.255262289886181
-0.22467502294076233 2.6383645053173446 2.255262289886181
-18.704675314024346 169.16883912054982 -61.70250451201381
-20.433474145010734 158.57132715442134 -57.59826279210579
-23.727084056917697 161.22072094392055 -58.624323222082815
-27.110908238382706 163.87010385125592 -59.65038365205977
-30.42048618894983 165.63635334224733 -60.334423938711076
-32.35098631025471 160.33759091729254 -58.28230307875707
-38.35103578413961 161.22072094392055 -58.624323222082815
-40.78966447468732 159.45445966117353 -57.94028293543142
-44.36826897031259 162.10384976172637 -58.966343365408456
-48.546433747470644 166.51947641029196 -60.67644408203675
-55.065373011530085 177.9999828182344 -65.12270594527048
-59.07149473691044 180.64930789914018 -66.14876637524752
-57.666904664654304 159.45445966117353 -57.94028293543142
-57.7292093927635 152.3893627074863 -55.204121788826114
-64.56926030157058 162.986977390918 -59.30836350873411
-67.34857417562654 162.986977390918 -59.30836350873411
-71.25399528787304 165.63635334224733 -60.334423938711076
-78.00752288811476 174.46753683714707 -63.75462537196783
-83.79825839411617 174.46753683714707 -63.75462537196783
-86.21461764354149 173.58442300902774 -63.41260522864213
-94.95376290197459 185.0648328381484 -67.85886709187577
-98.8686104233323 186.83103719780144 -68.54290737852719
94.98808418917454 178.43231090245587 -69.43299688546684
87.87354027521721 175.8173420247851 -68.35789303683089
58.27415709210441 120.90037412913432 -45.780712215477
49.31192885338836 106.08003990590349 -39.68845707320687
50.3017396370708 112.18265093148933 -42.19703272002399
48.79116633700676 113.05443774258774 -42.55540066956928
45.047287970080696 108.6954677051378 -40.7635609218428
63.7320209828891 167.1007204751376 -64.774213541378
65.29497964850096 179.3039655173996 -69.79136483501209
57.5949737388929 166.22905298450146 -64.41584559183264
53.80149685928776 163.6140442443952 -63.34074174319675
49.8116536888655 160.12735064157994 -61.90726994501549
46.96060627580705 160.12735064157994 -61.90726994501549
40.0872025645552 155.7689573742354 -60.115430197289
39.795200759342464 166.22905298450146 -64.41584559183264
33.28699326302518 150.53884347618666 -57.96522250001716
30.014417818848308 147.92376789007875 -56.89011865138134
28.287693785810355 153.15390641851573 -59.04032634865312
24.753319014561775 148.7954611995087 -57.24848660092667
19.852800728694906 153.15390641851573 -59.04032634865312
18.10137384633257 162.74237251728152 -62.98237379365144
14.035140299301965 151.4105324950768 -58.32359044956248
11.558862360260342 155.7689573742354 -60.115430197289
8.379070056237785 150.53884347618666 -57.96522250001716
5.098742772119227 137.4633241518883 -52.58970325683767
1.9962251537700064e-16 2.68671984241217 2.240593023593284
-0.056896294912425496 2.68671984241217 2.240593023593284
-0.11377525866225334 2.68671984241217 2.240593023593284
-0.1706195653661277 2.68671984241217 2.240593023593284
-0.22741189969756345 2.68671984241217 2.240593023593284
-15.662478209022767 168.84405242227228 -65.49094944046847
-20.421674896660445 157.51231832298038 -60.83216609637961
-23.451198953847925 158.38399695577377 -61.19053404592493
-26.79793717883748 160.99902573455958 -62.26563789456085
-30.23306826301139 163.6140442443952 -63.34074174319675
-33.57712868451104 165.35738446051357 -64.05747764228737
-35.4221183978865 160.12735064157994 -61.90726994501549
-40.53890965750108 157.51231832298038 -60.83216609637961
-44.578510996184235 161.87069968682914 -62.62400584410614
-47.21793591600922 160.99902573455958 -62.26563789456085
-54.178893701517744 174.07402511598937 -67.64115713774031
-59.57134120735668 181.04727230557822 -70.5081007341028
-43.30960308376794 125.25912719293255 -47.57255196320351
-59.3826720415565 155.7689573742354 -60.115430197289
-63.472366834923456 159.25567438857064 -61.548901995470224
-68.02836078566784 163.6140442443952 -63.34074174319675
-73.47305530346522 169.71571691085833 -65.84931739001378
-74.76372413363686 166.22905298450146 -64.41584559183264
-78.61831602198552 162.74237251728152 -62.98237379365144
-83.49064565707752 167.1007204751376 -64.774213541378
-95.27053545163824 184.53387644684358 -71.94157253228393
-95.92166461567169 180.17561931439286 -70.14973278455744
99.93101649617856 186.4397314702498 -77.19135655321315
1.5994140013009905 2.735041232216839 2.2252412509602895
52.851524703492636 109.0582608998883 -43.476763145781
55.09769663359524 117.6569621841405 -47.222829079940084
56.64436211708722 125.3955484002598 -50.59428842068333
52.2529994415318 120.23651420343212 -48.34664886018787
50.559068563558604 121.0963595113421 -48.72125545360373
48.12528806977411 120.23651420343212 -48.34664886018787
63.917223401811015 174.4032858073064 -71.94686424539037
56.616590208911184 162.36667654170364 -66.70237193756756
54.31135995771341 164.08620357726832 -67.45158512439933
50.843698219096794 162.36667654170364 -66.70237193756756
47.16688061532409 159.78737817161172 -65.57855215731983
44.2889424952534 159.78737817161172 -65.57855215731983
38.284903503966014 158.92760989382128 -65.20394556390384
31.722262701718467 142.59177848427382 -58.086420289001595
29.820467797681204 146.03094146552127 -59.58484666266514
30.519579359529946 164.08620357726832 -67.45158512439933
24.448265229706927 146.03094146552127 -59.58484666266514
25.492715956126304 170.96427284181635 -70.44843787172665
18.371426483644555 164.08620357726832 -67.45158512439933
14.186748032169639 152.04942216687925 -62.20709281657661
11.807327142045745 158.06784050851988 -64.82933897048798
8.518968467642965 152.04942216687925 -62.20709281657661
4.807081619742518 128.83485747023138 -52.09271479434697
0.057576463103193684 2.735041232216839 2.2252412509602895
-0.05757646310319402 2.735041232216839 2.2252412509602895
-0.11513538785797053 2.735041232216839 2.2252412509602895
-0.1726592412582647 2.735041232216839 2.2252412509602895
-0.2301305009810847 2.735041232216839 2.2252412509602895
-15.722126584829356 168.38500388826907 -69.32461809147888
-17.402255448800073 155.48852551744912 -63.70551919024027
-24.073286381924415 161.50691147777414 -66.32776534415164
-27.204091925085734 162.36667654170364 -66.70237193756756
-30.680583146237645 164.94596558219646 -67.8261917178153
-32.65110811478904 159.78737817161172 -65.57855215731983
-37.89097831457947 170.1045174258819 -70.07383127831075
-38.28490350396599 158.92760989382128 -65.20394556390384
-45.248833854747225 163.22644056925918 -67.07697853098341
-48.95584615752709 165.80572660015685 -68.20079831123118
-55.18101540551422 176.1227872549279 -72.6960774322221
-57.17651563742545 172.68378103741114 -71.19765105855845
-46.05143643582878 132.27413245515882 -53.59114116801063
-58.843374524560154 160.64714536027094 -65.95315875073571
-59.6623197901723 155.48852551744912 -63.70551919024027
-63.060443034642574 157.20806999691243 -64.45473237707203
-70.12216662940199 167.5252457379197 -68.950011498063
-71.10898186756059 163.22644056925918 -67.07697853098341
-73.88553459005372 163.22644056925918 -67.07697853098341
-77.8589330117978 165.80572660015685 -68.20079831123118
-87.73553062578067 174.4032858073064 -71.94686424539037
-98.69306692640977 189.87869037412943 -78.68978292687666
-84.63248289582653 158.06784050851988 -64.82933897048798
99.70264424687205 184.73971168436444 -81.01651871992942
1.618175592642347 2.7833063288512276 2.2092116482858573
88.42930219170167 174.5708985181709 -76.32774517805815
50.28943031538648 106.77437288547651 -45.06925489891626
53.150543517932995 116.94464320874518 -49.75802844078757
55.27162692555929 126.26704744708685 -54.05607085416955
45.54356238465052 108.46944978955784 -45.850717155894834
49.52615115341048 122.87711507743 -52.493146340212434
69.48118774472265 179.65531771879927 -78.67213194899378
56.828460973606276 161.85972394019174 -70.46677825071902
53.93942854852762 161.85972394019174 -70.46677825071902
50.2265769313618 159.31746445385227 -69.29458486525124
46.844329694026456 157.6226197387469 -68.51312260827265
46.13027005113919 165.24938977083082 -72.02970276467612
40.4463456180484 155.08034473564874 -67.34092922280483
33.03780698729841 147.45345785120048 -63.824349066401396
30.67141730454867 149.14833009767915 -64.60581132337995
29.990889244355333 160.16488527750084 -69.68531599374049
24.281922784506868 144.06369763791253 -62.261424552444296
24.036676415301628 160.16488527750084 -69.68531599374049
19.58977605240358 149.14833009767915 -64.60581132337995
14.089997374058974 149.99576433659925 -64.99654245186925
11.598207556170593 154.23291754747822 -66.95019809431561
8.701748390878846 154.23291754747822 -66.95019809431561
4.838883905800517 128.8094744857528 -55.22826423963737
0.058251851758503774 2.7833063288512276 2.2092116482858573
2.0437853099747702e-16 2.7833063288512276 2.2092116482858573
-0.11648595943866366 2.7833063288512276 2.2092116482858573
-0.17468458436715412 2.7833063288512276 2.2092116482858573
-0.23282999867903953 2.7833063288512276 2.2092116482858573
-15.93522491078484 169.48645173268454 -73.98335840712252
-17.28342693650754 153.38548923438202 -66.5594669658263
-20.59940795122706 156.7751958128906 -68.12239147978343
-27.305895155159035 161.85972394019174 -70.46677825071902
-30.630265205697633 163.55455873017917 -71.2482405076976
-34.35987003740502 166.94421718033254 -72.81116502165472
-35.908562794607114 160.16488527750084 -69.68531599374049
-38.230236694401576 157.6226197387469 -68.51312260827265
-48.620408360782854 163.55455873017917 -71.2482405076976
-55.609168395550626 176.2657078615645 -77.10920743503668
-59.344009767834656 177.96051423282069 -77.89066969201527
-42.14379472454526 120.33464192048879 -51.32095295474466
-57.811195687504004 156.7751958128906 -68.12239147978343
-64.00889302314503 158.4700426132706 -68.90385373676199
-68.202766095318 161.85972394019174 -70.46677825071902
-68.75013687057542 156.7751958128906 -68.12239147978343
-76.49187318332983 167.79162955898516 -73.20189615014398
-78.93954685991939 166.94421718033254 -72.81116502165472
-80.49849557162611 164.40197471166715 -71.63897163618682
-97.5661414066377 186.43450443317175 -81.79798097690802
-107.06668307449151 198.29798741945376 -87.26821677575786
96.69681156652148 177.91437900861928 -82.4087126614242
1.636798698518846 2.83149268655525 2.192509098342241
78.35518168850798 153.70968929727638 -70.613350012226
52.545886110365345 106.96647922030559 -47.83609799998118
55.864250287110664 121.99174681494647 -55.157357575345564
51.535486935475404 116.98341733897206 -52.71693771689078
48.79361004008244 115.31395507840541 -51.903464430739184
47.46445526751044 116.98341733897206 -52.71693771689078
69.30607617732515 177.91437900861928 -82.4087126614242
64.2698090120891 172.90656687885019 -79.96829280296943
53.26899150630538 158.71761592697058 -73.05376987068078
49.86545220809724 157.04831099573963 -72.24029658452926
47.01132555318025 157.04831099573963 -72.24029658452926
43.669992867081234 155.37900216328143 -71.42682329837761
42.366018928646234 161.221566284462 -74.27397979990825
37.75001503830102 154.54434624297446 -71.0200866553018
29.75442261109884 143.69371917884746 -65.7325102953164
30.092469142876148 159.55226696940284 -73.46050651375661
24.537028178759467 144.52838991626203 -66.13924693839222
24.372371153165812 161.221566284462 -74.27397979990825
20.228758317156718 152.8750313086999 -70.2066133691502
18.496291181235215 162.89086200472858 -75.08745308605988
11.83358874137851 156.21365707529614 -71.83355994145343
8.495856844653133 149.5363885616358 -68.57966679684706
4.932050341681149 130.33879465279838 -59.224724006103585
0.05892225514842841 2.83149268655525 2.192509098342241
2.067306632623286e-16 2.83149268655525 2.192509098342241
-0.05892225514842875 2.83149268655525 2.192509098342241
-0.17669497775366516 2.83149268655525 2.192509098342241
-0.23550957049827856 2.83149268655525 2.192509098342241
-15.820295339191382 167.0640863120445 -77.12113630143881
-17.15941014185983 151.20571213095334 -69.3931400829986
-20.67409105753133 156.21365707529614 -71.83355994145343
-30.409740150747204 161.221566284462 -74.27397979990825
-34.286552577192175 165.3947990920759 -76.30766301528718
-37.73961702937781 167.0640863120445 -77.12113630143881
-38.1610210660765 156.21365707529614 -71.83355994145343
-40.81897238684067 155.37900216328143 -71.42682329837761
-48.0185545706332 160.38691708357297 -73.86724315683242
-53.337685164402075 167.8987287092826 -77.52787294451467
-58.915012937217405 175.41047605428446 -81.18850273219678
-43.332998595817905 122.82646057408026 -55.56409421842134
-56.770986251510614 152.8750313086999 -70.2066133691502
-58.82974297822748 151.20571213095334 -69.3931400829986
-65.92724112444766 155.37900216328143 -71.42682329837761
-69.37096274693282 157.04831099573963 -72.24029658452926
-73.23789498696189 159.55226696940284 -73.46050651375661
-75.96780101649043 159.55226696940284 -73.46050651375661
-80.74827131216244 163.72550855250026 -75.49418972913558
-87.79062118936723 172.07192905590202 -79.56155615989363
-108.57290251587521 199.61464665764717 -92.98386538139506
94.60369008534545 172.77445754156128 -84.46160496795548
1.6552776461520307 2.8795777742623274 2.175138688887959
94.7842847233901 184.27484036875688 -90.37826063232527
63.26832119459876 127.59278044176729 -61.21760057221697
46.39153130324703 97.19501869124088 -45.58072488781109
52.62808792087244 118.55595890492769 -56.56879969306924
54.0983439668961 126.77126046685397 -60.794982310476286
51.52632639166944 125.94973875527342 -60.37236404873552
66.50669421741956 169.48861130252158 -82.77113192099266
64.40275976503457 171.95299699248676 -84.03898670621476
56.87885831431473 159.63100269352765 -77.69971278010422
49.22437297454172 153.8806763805165 -74.74138494791936
46.40693948588278 153.8806763805165 -74.74138494791936
43.34080027789253 153.05919753879493 -74.31876668617866
39.853504230751106 150.5947551885884 -73.05091190095654
39.300401382974215 159.63100269352765 -77.69971278010422
33.12017084115194 145.66584272792977 -70.51520233051232
28.134155899046707 148.13030374599995 -71.78305711573441
24.352777667071297 142.37987890809916 -68.82472928354954
22.80083519879303 149.77327240783043 -72.62829363921581
20.40775195051113 153.05919753879493 -74.31876668617866
17.40918268247979 152.23771773718 -73.89614842443794
13.962832045325792 146.4873308291151 -70.93782059225308
8.621672082960627 150.5947551885884 -73.05091190095654
5.401314286600704 141.55838499522736 -68.40211102180886
0.05958746906160065 2.8795777742623274 2.175138688887959
2.0906458807791832e-16 2.8795777742623274 2.175138688887959
-0.059587469061601 2.8795777742623274 2.175138688887959
-0.11915678720288848 2.8795777742623274 2.175138688887959
-0.238168400215268 2.8795777742623274 2.175138688887959
-15.542630612069122 162.9168846130086 -79.390185827067
-18.6407371654236 162.9168846130086 -79.390185827067
-20.297300815581988 152.23771773718 -73.89614842443794
-23.179236194231407 152.23771773718 -73.89614842443794
-28.763670681543733 151.41623695934425 -73.47353016269726
-32.81676823961586 157.16658246256182 -76.43185799488218
-34.06233076317235 149.77327240783043 -72.62829363921581
-36.65002778367286 148.95178859959452 -72.20567537747509
-39.19573713724116 148.13030374599995 -71.78305711573441
-42.87166084587294 151.41623695934425 -73.47353016269726
-52.40411800693446 163.73835308721883 -79.81280408880774
-57.90816691724757 171.13153577635018 -83.616368444474
-43.89600035610511 123.48516283498466 -59.10450926351348
-56.34339626532899 150.5947551885884 -73.05091190095654
-56.43815265520442 144.02286314194342 -69.6699658070309
-58.99552159080796 144.02286314194342 -69.6699658070309
-67.74185998347492 152.23771773718 -73.89614842443794
-72.68507190661876 157.16658246256182 -76.43185799488218
-74.9970725474402 156.34510730422767 -76.00923973314141
-80.54943645109242 162.09541534924665 -78.96756756532632
-83.72165566161696 162.9168846130086 -79.390185827067
-92.1689448624165 173.59591743341807 -84.88422322969619
