8.884239861665558 21.234149485727993 -5.266890617357953
8.172356087564468 20.36583727313929 -4.892284023942042
8.182431768381779 21.234149485727993 -5.266890617357953
7.827735407405537 21.234149485727993 -5.266890617357953
7.787770197223399 22.10165858940308 -5.641497210773869
7.413159779984755 22.10165858940308 -5.641497210773869
7.0362912424642365 22.10165858940308 -5.641497210773869
6.65727938246918 22.10165858940308 -5.641497210773869
6.276239650683709 22.10165858940308 -5.641497210773869
5.893288115501342 22.10165858940308 -5.641497210773869
5.508541427669434 22.10165858940308 -5.641497210773869
5.122116784756209 22.10165858940308 -5.641497210773869
4.926904258353206 22.968469442428773 -6.016103804189783
6.1138551419028735 30.749215232095768 -9.387563144932995
5.563992419832897 30.749215232095768 -9.387563144932995
5.012434851772236 30.749215232095768 -9.387563144932995
4.459350447499184 30.749215232095768 -9.387563144932995
3.7919123943092035 29.88597825152669 -9.012956551517087
3.3492754435554573 30.749215232095768 -9.387563144932995
2.792622983484535 30.749215232095768 -9.387563144932995
2.2351198634001044 30.749215232095768 -9.387563144932995
1.7254609577949536 31.612228928559553 -9.762169738348906
1.1182411339850127 30.749215232095768 -9.387563144932995
0.5592057367347787 30.749215232095768 -9.387563144932995
1.9052180173401186e-15 29.88597825152669 -9.012956551517087
-0.543024147262795 29.88597825152669 -9.012956551517087
-1.1182411339850016 30.749215232095768 -9.387563144932995
-1.6769359041531715 30.749215232095768 -9.387563144932995
-2.235119863400101 30.749215232095768 -9.387563144932995
-2.226957200925703 24.70033311422669 -6.765316991021606
-2.7677728226487797 25.565522231135112 -7.139923584437523
-3.2269359564496614 25.565522231135112 -7.139923584437523
-3.5560770820980108 24.70033311422669 -6.765316991021606
-3.8520867695074816 23.834669690687427 -6.39071039760569
-4.275962126171112 23.834669690687427 -6.39071039760569
-4.698534983348941 23.834669690687427 -6.39071039760569
-5.119676621255106 23.834669690687427 -6.39071039760569
-5.330687770411614 22.968469442428773 -6.016103804189783
-5.732847503335636 22.968469442428773 -6.016103804189783
-6.133260955374795 22.968469442428773 -6.016103804189783
-6.531806156712709 22.968469442428773 -6.016103804189783
-6.928361706620268 22.968469442428773 -6.016103804189783
-7.036291242464234 22.10165858940308 -5.641497210773869
-7.71502131635853 22.968469442428773 -6.016103804189783
-7.787770197223396 22.10165858940308 -5.641497210773869
-8.160008384218141 22.10165858940308 -5.641497210773869
-8.529760953611278 22.10165858940308 -5.641497210773869
-8.896915275188292 22.10165858940308 -5.641497210773869
-9.261359510186132 22.10165858940308 -5.641497210773869
-9.622982645360366 22.10165858940308 -5.641497210773869
-9.981674526800902 22.10165858940308 -5.641497210773869
-10.337325893485913 22.10165858940308 -5.641497210773869
-10.689828410563843 22.10165858940308 -5.641497210773869
-11.03907470235323 22.10165858940308 -5.641497210773869
-11.384958385050355 22.10165858940308 -5.641497210773869
-11.249839111591074 21.234149485727993 -5.266890617357953
-12.066217541463086 22.10165858940308 -5.641497210773869
-12.401385497040138 22.10165858940308 -5.641497210773869
-12.732775870459868 22.10165858940308 -5.641497210773869
-13.060287717004288 22.10165858940308 -5.641497210773869
-12.83883627751422 21.234149485727993 -5.266890617357953
-13.70327798816838 22.10165858940308 -5.641497210773869
-13.447729171921939 21.234149485727993 -5.266890617357953
-13.74607722000097 21.234149485727993 -5.266890617357953
-14.040238079797552 21.234149485727993 -5.266890617357953
-14.330122147064191 21.234149485727993 -5.266890617357953
-14.615641120305815 21.234149485727993 -5.266890617357953
-14.896708027677299 21.234149485727993 -5.266890617357953
-15.173237253475902 21.234149485727993 -5.266890617357953
-15.445144564220653 21.234149485727993 -5.266890617357953
15.37805346805576 21.059576287118713 -5.605410921499611
15.107327276688515 21.059576287118713 -5.605410921499611
16.08756484805309 22.769023883221095 -6.386873178478161
13.936215276082768 20.2037029795637 -5.214679793010344
13.6639689993886 20.2037029795637 -5.214679793010344
13.387560545371377 20.2037029795637 -5.214679793010344
13.107074110723827 20.2037029795637 -5.214679793010344
12.822595134331067 20.2037029795637 -5.214679793010344
12.534210271245126 20.2037029795637 -5.214679793010344
12.242007366288941 20.2037029795637 -5.214679793010344
11.946075427297995 20.2037029795637 -5.214679793010344
11.646504598007665 20.2037029795637 -5.214679793010344
11.343386130594556 20.2037029795637 -5.214679793010344
11.036812357880217 20.2037029795637 -5.214679793010344
10.726876665205674 20.2037029795637 -5.214679793010344
10.413673461985315 20.2037029795637 -5.214679793010344
10.097298152948918 20.2037029795637 -5.214679793010344
9.777847109080406 20.2037029795637 -5.214679793010344
9.455417638262338 20.2037029795637 -5.214679793010344
9.130107955634967 20.2037029795637 -5.214679793010344
8.80201715367897 20.2037029795637 -5.214679793010344
8.471245172030905 20.2037029795637 -5.214679793010344
8.497562667209975 21.059576287118713 -5.605410921499611
8.14688866845464 21.059576287118713 -5.605410921499611
7.79373304849022 21.059576287118713 -5.605410921499611
7.7530345838494155 21.914648117893773 -5.996142049988894
7.3800950328907895 21.914648117893773 -5.996142049988894
7.0049074334925585 21.914648117893773 -5.996142049988894
6.627586071432025 21.914648117893773 -5.996142049988894
6.248245882451264 21.914648117893773 -5.996142049988894
5.867002417246592 21.914648117893773 -5.996142049988894
5.483971806270703 21.914648117893773 -5.996142049988894
5.0992707243581865 21.914648117893773 -5.996142049988894
4.904400075672546 22.769023883221095 -6.386873178478161
6.0817324188395325 30.437979736374203 -9.903453334881636
5.53475872301142 30.437979736374203 -9.903453334881636
4.986099086059867 30.437979736374203 -9.903453334881636
4.307811120121514 29.587152610139913 -9.512722206392352
3.884390959593522 30.437979736374203 -9.903453334881636
3.331678061046539 30.437979736374203 -9.903453334881636
2.7779503010874715 30.437979736374203 -9.903453334881636
2.223376350556091 30.437979736374203 -9.903453334881636
1.6681251380499935 30.437979736374203 -9.903453334881636
1.1123657984673547 30.437979736374203 -9.903453334881636
0.5562676214867665 30.437979736374203 -9.903453334881636
1.895318514567679e-15 29.587152610139913 -9.512722206392352
-0.5402025966568257 29.587152610139913 -9.512722206392352
-1.1123657984673436 30.437979736374203 -9.903453334881636
-1.6681251380499824 30.437979736374203 -9.903453334881636
-2.2233763505560873 30.437979736374203 -9.903453334881636
-2.2965865958546448 25.328787466152587 -7.559066563945988
-2.754364314475736 25.328787466152587 -7.559066563945988
-3.2113030270445173 25.328787466152587 -7.559066563945988
-3.5391540306989033 24.47602523692128 -7.168335435456716
-3.834109611525721 23.622791589114122 -6.777604306967433
-4.41585079066235 24.47602523692128 -7.168335435456716
-4.67660756822758 23.622791589114122 -6.777604306967433
-4.904400075672538 22.769023883221095 -6.386873178478161
-5.3063392616709555 22.769023883221095 -6.386873178478161
-5.7066620853266095 22.769023883221095 -6.386873178478161
-6.105246604429392 22.769023883221095 -6.386873178478161
-6.501971406273607 22.769023883221095 -6.386873178478161
-6.896715644641466 22.769023883221095 -6.386873178478161
-7.289359076613981 22.769023883221095 -6.386873178478161
-7.380095032890782 21.914648117893773 -5.996142049988894
-8.06786578575919 22.769023883221095 -6.386873178478161
-8.123612485368465 21.914648117893773 -5.996142049988894
-8.491715855829275 21.914648117893773 -5.996142049988894
-8.857232567379294 21.914648117893773 -5.996142049988894
-9.220051280087356 21.914648117893773 -5.996142049988894
-9.58006147585886 21.914648117893773 -5.996142049988894
-9.937153492100684 21.914648117893773 -5.996142049988894
-10.291218555125438 21.914648117893773 -5.996142049988894
-10.642148813285027 21.914648117893773 -5.996142049988894
-10.989837369823286 21.914648117893773 -5.996142049988894
-10.873925888711527 21.059576287118713 -5.605410921499611
-11.67506676054068 21.914648117893773 -5.996142049988894
-12.012398867209436 21.914648117893773 -5.996142049988894
-12.346071880816526 21.914648117893773 -5.996142049988894
-12.675984161329627 21.914648117893773 -5.996142049988894
-12.47405532078508 21.059576287118713 -5.605410921499611
-13.324125721334912 21.914648117893773 -5.996142049988894
-13.088183920937178 21.059576287118713 -5.605410921499611
-13.956033886572978 21.914648117893773 -5.996142049988894
-13.686366585061782 21.059576287118713 -5.605410921499611
-13.979249659826927 21.059576287118713 -5.605410921499611
-14.267874519725659 21.059576287118713 -5.605410921499611
-14.552153246829668 21.059576287118713 -5.605410921499611
-14.83199924708482 21.059576287118713 -5.605410921499611
-15.107327276688508 21.059576287118713 -5.605410921499611
-15.378053468055759 21.059576287118713 -5.605410921499611
15.30679500761502 20.874869825216244 -5.942223763173755
15.037323300870156 20.874869825216244 -5.942223763173755
20.993636119326002 29.273763523237683 -10.009590193931759
13.873440597291195 20.03188741847159 -5.5354871200979625
13.602420634358197 20.03188741847159 -5.5354871200979625
13.327257242330363 20.03188741847159 -5.5354871200979625
13.048034238642481 20.03188741847159 -5.5354871200979625
12.764836677326356 20.03188741847159 -5.5354871200979625
12.477750823102573 20.03188741847159 -5.5354871200979625
12.186864125103385 20.03188741847159 -5.5354871200979625
11.892265190234886 20.03188741847159 -5.5354871200979625
11.594043756186483 20.03188741847159 -5.5354871200979625
11.29229066409592 20.03188741847159 -5.5354871200979625
10.987097830878197 20.03188741847159 -5.5354871200979625
10.678558221226787 20.03188741847159 -5.5354871200979625
10.36676581929567 20.03188741847159 -5.5354871200979625
10.051815600070883 20.03188741847159 -5.5354871200979625
9.733803500440187 20.03188741847159 -5.5354871200979625
9.412826389969785 20.03188741847159 -5.5354871200979625
9.088982041396903 20.03188741847159 -5.5354871200979625
8.762369100847266 20.03188741847159 -5.5354871200979625
8.804659470525234 20.874869825216244 -5.942223763173755
8.458186862305803 20.874869825216244 -5.942223763173755
8.109137808431809 20.874869825216244 -5.942223763173755
8.085004045098195 21.717054559489586 -6.348960406249552
7.716187359393173 21.717054559489586 -6.348960406249552
7.345020248270093 21.717054559489586 -6.348960406249552
6.971615772826581 21.717054559489586 -6.348960406249552
6.328992832890428 20.874869825216244 -5.942223763173755
6.218550346335886 21.717054559489586 -6.348960406249552
5.83911878631272 21.717054559489586 -6.348960406249552
5.457908574142435 21.717054559489586 -6.348960406249552
5.280538844036258 22.558547356581258 -6.75569704932536
4.880553961815107 22.558547356581258 -6.75569704932536
6.2222093256141005 30.949506756741233 -10.823063480083357
5.662601536803046 30.949506756741233 -10.823063480083357
4.815448874796523 29.273763523237683 -10.009590193931759
4.411241342493626 30.111743837615453 -10.41632683700756
3.862780108388883 30.111743837615453 -10.41632683700756
3.3131422340435406 30.111743837615453 -10.41632683700756
2.7624951444785792 30.111743837615453 -10.41632683700756
2.274732281861836 30.949506756741233 -10.823063480083357
1.6588445057644914 30.111743837615453 -10.41632683700756
1.1061771392912139 30.111743837615453 -10.41632683700756
0.5531728205455226 30.111743837615453 -10.41632683700756
1.8848864441287512e-15 29.273763523237683 -10.009590193931759
-0.5372292539198128 29.273763523237683 -10.009590193931759
-1.0742948626046203 29.273763523237683 -10.009590193931759
-1.6588445057644803 30.111743837615453 -10.41632683700756
-2.2747322818618323 30.949506756741233 -10.823063480083357
-2.364391480005631 25.919166230998638 -8.382643621628565
-3.313142234043537 30.111743837615453 -10.41632683700756
-3.86278010838888 30.111743837615453 -10.41632683700756
-3.5212546630368964 24.239795689300514 -7.569170335476951
-3.8150789101027542 23.399436383521795 -7.162433692401158
-4.234882001383188 23.399436383521795 -7.162433692401158
-4.653395106581782 23.399436383521795 -7.162433692401158
-5.0704907425524555 23.399436383521795 -7.162433692401158
-5.280538844036255 22.558547356581258 -6.75569704932536
-5.899921871801159 23.399436383521795 -7.162433692401158
-6.312004712322328 23.399436383521795 -7.162433692401158
-6.470357600699118 22.558547356581258 -6.75569704932536
-6.863182518475784 22.558547356581258 -6.75569704932536
-7.253916844372179 22.558547356581258 -6.75569704932536
-7.642441556927504 22.558547356581258 -6.75569704932536
-8.028638307750604 22.558547356581258 -6.75569704932536
-8.412389457569994 22.558547356581258 -6.75569704932536
-8.451357960249887 21.717054559489586 -6.348960406249552
-8.81513750989674 21.717054559489586 -6.348960406249552
-9.17623188326393 21.717054559489586 -6.348960406249552
-9.534531087507322 21.717054559489586 -6.348960406249552
-9.889925981218388 21.717054559489586 -6.348960406249552
-10.242308307669703 21.717054559489586 -6.348960406249552
-10.59157072779103 21.717054559489586 -6.348960406249552
-10.494711226468356 20.874869825216244 -5.942223763173755
-11.280311276938267 21.717054559489586 -6.348960406249552
-11.619579608920926 21.717054559489586 -6.348960406249552
-11.955308504393305 21.717054559489586 -6.348960406249552
-12.287395697081577 21.717054559489586 -6.348960406249552
-12.615740030009837 21.717054559489586 -6.348960406249552
-12.940241486313539 21.717054559489586 -6.348960406249552
-13.260801219705582 21.717054559489586 -6.348960406249552
-13.577321584585837 21.717054559489586 -6.348960406249552
-13.889706165784952 21.717054559489586 -6.348960406249552
-14.197859807933366 21.717054559489586 -6.348960406249552
-13.914472943388446 20.874869825216244 -5.942223763173755
-14.201760380237895 20.874869825216244 -5.942223763173755
-14.48472182329997 20.874869825216244 -5.942223763173755
-14.763271079778018 20.874869825216244 -5.942223763173755
-15.037323300870147 20.874869825216244 -5.942223763173755
-15.306795007615017 20.874869825216244 -5.942223763173755
15.872247270971565 21.50907784649535 -6.699844807666725
14.96324664991 20.680215415759367 -6.277226545926031
15.926745309964167 22.337254494340897 -7.122463069407425
13.806929110893957 19.850561383919878 -5.854608284185333
13.53720846087844 19.850561383919878 -5.854608284185333
13.263364246027859 19.850561383919878 -5.854608284185333
12.985479881942844 19.850561383919878 -5.854608284185333
12.703640014892617 19.850561383919878 -5.854608284185333
12.417930496030934 19.850561383919878 -5.854608284185333
12.128438355244965 19.850561383919878 -5.854608284185333
11.835251774645165 19.850561383919878 -5.854608284185333
11.538460061704152 19.850561383919878 -5.854608284185333
11.238153622052772 19.850561383919878 -5.854608284185333
10.934423931941673 19.850561383919878 -5.854608284185333
10.627363510376767 19.850561383919878 -5.854608284185333
10.317065890937014 19.850561383919878 -5.854608284185333
10.003625593283223 19.850561383919878 -5.854608284185333
9.687138094366418 19.850561383919878 -5.854608284185333
9.779154924499267 20.680215415759367 -6.277226545926031
9.442707196164195 20.680215415759367 -6.277226545926031
9.103383127743612 20.680215415759367 -6.277226545926031
8.761286080635864 20.680215415759367 -6.277226545926031
8.416520260915478 20.680215415759367 -6.277226545926031
8.408699560279059 21.50907784649535 -6.699844807666725
8.044194823912237 21.50907784649535 -6.699844807666725
7.677239747876183 21.50907784649535 -6.699844807666725
7.3079461102418355 21.50907784649535 -6.699844807666725
6.656361893099967 20.680215415759367 -6.277226545926031
6.5627937899389055 21.50907784649535 -6.699844807666725
6.18716208788554 21.50907784649535 -6.699844807666725
5.80964571632382 21.50907784649535 -6.699844807666725
5.649615368234257 22.337254494340897 -7.122463069407425
5.2532943765646625 22.337254494340897 -7.122463069407425
5.043805164942264 23.164833478147745 -7.5450813311481255
6.185289774269855 30.595355306217098 -11.348645686814418
5.47162372915287 29.770856930506326 -10.926027425073716
4.929222652789577 29.770856930506326 -10.926027425073716
4.385320087455799 29.770856930506326 -10.926027425073716
3.729630576212689 28.946145256110757 -10.50340916333303
3.293673608738925 29.770856930506326 -10.926027425073716
2.7462622214482764 29.770856930506326 -10.926027425073716
2.1980142960813427 29.770856930506326 -10.926027425073716
1.6965293189521617 30.595355306217098 -11.348645686814418
1.0996770415821249 29.770856930506326 -10.926027425073716
0.5499222766173936 29.770856930506326 -10.926027425073716
1.8739249837330493e-15 28.946145256110757 -10.50340916333303
-0.5341050247607579 28.946145256110757 -10.50340916333303
-1.0680473559569772 28.946145256110757 -10.50340916333303
-1.6965293189521506 30.595355306217098 -11.348645686814418
-2.198014296081339 29.770856930506326 -10.926027425073716
-2.8252521497854453 30.595355306217098 -11.348645686814418
-3.2936736087389216 29.770856930506326 -10.926027425073716
-3.8400817111418157 29.770856930506326 -10.926027425073716
-3.5023844314327723 23.991888712315635 -7.967699592888827
-3.7950004621745888 23.164833478147745 -7.5450813311481255
-4.212594164158765 23.164833478147745 -7.5450813311481255
-4.628904669152228 23.164833478147745 -7.5450813311481255
-5.043805164942256 23.164833478147745 -7.5450813311481255
-5.4571692688186095 23.164833478147745 -7.5450813311481255
-5.868871066070901 23.164833478147745 -7.5450813311481255
-6.044215432333626 22.337254494340897 -7.122463069407425
-6.686786651835813 23.164833478147745 -7.5450813311481255
-6.827772542638297 22.337254494340897 -7.122463069407425
-7.216490909757314 22.337254494340897 -7.122463069407425
-7.603011063837498 22.337254494340897 -7.122463069407425
-7.987215267095625 22.337254494340897 -7.122463069407425
-8.368986487209497 22.337254494340897 -7.122463069407425
-8.748208432967173 22.337254494340897 -7.122463069407425
-8.77064292530292 21.50907784649535 -6.699844807666725
-9.498543254421351 22.337254494340897 -7.122463069407425
-9.4864053493031 21.50907784649535 -6.699844807666725
-9.840006380111324 21.50907784649535 -6.699844807666725
-10.190610049653879 21.50907784649535 -6.699844807666725
-10.538109560656649 21.50907784649535 -6.699844807666725
-10.882399061402293 21.50907784649535 -6.699844807666725
-11.22337367797366 21.50907784649535 -6.699844807666725
-11.094146528288112 20.680215415759367 -6.277226545926031
-11.894963843292244 21.50907784649535 -6.699844807666725
-12.225374819169264 21.50907784649535 -6.699844807666725
-12.552061827446494 21.50907784649535 -6.699844807666725
-12.87492535609653 21.50907784649535 -6.699844807666725
-13.193867057760903 21.50907784649535 -6.699844807666725
-13.508789779707623 21.50907784649535 -6.699844807666725
-13.81959759342485 21.50907784649535 -6.699844807666725
-13.555837852892257 20.680215415759367 -6.277226545926031
-14.42849107816703 21.50907784649535 -6.699844807666725
-14.726391274338047 21.50907784649535 -6.699844807666725
-15.019805669069136 21.50907784649535 -6.699844807666725
-15.308644885493301 21.50907784649535 -6.699844807666725
-14.963246649909992 20.680215415759367 -6.277226545926031
-15.872247270971561 21.50907784649535 -6.699844807666725
15.787407445811278 21.290928554345037 -7.048688371452633
15.509474695853962 21.290928554345037 -7.048688371452633
15.839793675270599 22.105371104681595 -7.487059518241706
13.736701076934121 19.659905241168374 -6.171946077874476
13.468352343209101 19.659905241168374 -6.171946077874476
13.19590101888948 19.659905241168374 -6.171946077874476
12.919430095287947 19.659905241168374 -6.171946077874476
12.639023788126051 19.659905241168374 -6.171946077874476
12.354767511881327 19.659905241168374 -6.171946077874476
12.066747853769161 19.659905241168374 -6.171946077874476
11.775052547367524 19.659905241168374 -6.171946077874476
11.479770445892465 19.659905241168374 -6.171946077874476
11.180991495132554 19.659905241168374 -6.171946077874476
10.878806706050526 19.659905241168374 -6.171946077874476
11.036221282407016 20.475808482590047 -6.610317224663557
10.713985839138562 20.475808482590047 -6.610317224663557
9.952742811728832 19.659905241168374 -6.171946077874476
10.059823351132568 20.475808482590047 -6.610317224663557
9.728095570625886 20.475808482590047 -6.610317224663557
9.393404517970213 20.475808482590047 -6.610317224663557
9.055852143302415 20.475808482590047 -6.610317224663557
8.715541268345756 20.475808482590047 -6.610317224663557
8.37257555508942 20.475808482590047 -6.610317224663557
8.363753650078669 21.290928554345037 -7.048688371452633
7.679098273258941 20.475808482590047 -6.610317224663557
7.636203613118213 21.290928554345037 -7.048688371452633
7.268883911947607 21.290928554345037 -7.048688371452633
6.8993500383221615 21.290928554345037 -7.048688371452633
6.527714555839539 21.290928554345037 -7.048688371452633
5.906349453921852 20.475808482590047 -6.610317224663557
5.778592185062525 21.290928554345037 -7.048688371452633
5.618771446133579 22.105371104681595 -7.487059518241706
5.224614158184887 22.105371104681595 -7.487059518241706
5.015735192014646 22.9192239850736 -7.925430665030782
6.14662561718628 30.226512774521332 -11.870770986132491
5.593815611884263 30.226512774521332 -11.870770986132491
4.898699310344203 29.415684317269957 -11.432399839343402
4.35816476577719 29.415684317269957 -11.432399839343402
3.8163026820040167 29.415684317269957 -11.432399839343402
3.273278115464558 29.415684317269957 -11.432399839343402
2.7292564767021714 29.415684317269957 -11.432399839343402
2.247100183270131 30.226512774521332 -11.870770986132491
1.685924338671735 30.226512774521332 -11.870770986132491
1.0928674853328184 29.415684317269957 -11.432399839343402
0.5465169798495487 29.415684317269957 -11.432399839343402
1.917472734942246e-15 29.415684317269957 -11.432399839343402
-0.530830860850128 28.604647460977276 -10.994028692554332
-1.0928674853328075 29.415684317269957 -11.432399839343402
-1.6859243386717238 30.226512774521332 -11.870770986132491
-2.184403479978084 29.415684317269957 -11.432399839343402
-2.33758116329029 25.35792500274024 -9.240544105398014
-2.803530313195714 25.35792500274024 -9.240544105398014
-3.8163026820040136 29.415684317269957 -11.432399839343402
-4.35816476577718 29.415684317269957 -11.432399839343402
-3.773880383830968 22.9192239850736 -7.925430665030782
-4.189150077744627 22.9192239850736 -7.925430665030782
-4.603143715963404 22.9192239850736 -7.925430665030782
-5.015735192014638 22.9192239850736 -7.925430665030782
-5.426798826537872 22.9192239850736 -7.925430665030782
-5.836209405567967 22.9192239850736 -7.925430665030782
-6.24384221867649 22.9192239850736 -7.925430665030782
-6.649573096959742 22.9192239850736 -7.925430665030782
-6.790496503350671 22.105371104681595 -7.487059518241706
-7.177092673071624 22.105371104681595 -7.487059518241706
-7.561502630838299 22.105371104681595 -7.487059518241706
-7.943609281653709 22.105371104681595 -7.487059518241706
-8.323296232130451 22.105371104681595 -7.487059518241706
-8.700447825945306 22.105371104681595 -7.487059518241706
-9.074949179069241 22.105371104681595 -7.487059518241706
-9.081113741553994 21.290928554345037 -7.048688371452633
-9.435698920812257 21.290928554345037 -7.048688371452633
-10.181415271576938 22.105371104681595 -7.487059518241706
-10.136139528868174 21.290928554345037 -7.048688371452633
-10.481781596671286 21.290928554345037 -7.048688371452633
-10.824230812260764 21.290928554345037 -7.048688371452633
-11.16338286228814 21.290928554345037 -7.048688371452633
-11.499134437753552 21.290928554345037 -7.048688371452633
-11.831383265474603 21.290928554345037 -7.048688371452633
-12.160028139239813 21.290928554345037 -7.048688371452633
-12.484968950636965 21.290928554345037 -7.048688371452633
-12.806106719547143 21.290928554345037 -7.048688371452633
-13.123343624295014 21.290928554345037 -7.048688371452633
-13.43658303144624 21.290928554345037 -7.048688371452633
-13.745729525242977 21.290928554345037 -7.048688371452633
-14.050688936668454 21.290928554345037 -7.048688371452633
-14.351368372131747 21.290928554345037 -7.048688371452633
-14.647676241764065 21.290928554345037 -7.048688371452633
-14.939522287317907 21.290928554345037 -7.048688371452633
-15.226817609660628 21.290928554345037 -7.048688371452633
-15.509474695853955 21.290928554345037 -7.048688371452633
-15.787407445811274 21.290928554345037 -7.048688371452633
15.698275563188021 21.062827710385363 -7.395384836478406
15.42191195429021 21.062827710385363 -7.395384836478406
21.217500564630242 29.046606846237694 -11.935289833873869
13.662777887551146 19.46010876700736 -6.487403836999311
13.395873255590642 19.46010876700736 -6.487403836999311
13.124888110867747 19.46010876700736 -6.487403836999311
12.84990499808264 19.46010876700736 -6.487403836999311
12.571007679755285 19.46010876700736 -6.487403836999311
12.288281110710598 19.46010876700736 -6.487403836999311
12.001811412200333 19.46010876700736 -6.487403836999311
11.711685845669752 19.46010876700736 -6.487403836999311
11.417992786176935 19.46010876700736 -6.487403836999311
11.120821695472868 19.46010876700736 -6.487403836999311
10.820263094750537 19.46010876700736 -6.487403836999311
10.97531082202159 20.261854382354617 -6.9413943367388535
10.654853841571137 20.261854382354617 -6.9413943367388535
10.331151289424659 20.261854382354617 -6.9413943367388535
10.004301768515308 20.261854382354617 -6.9413943367388535
9.269896343185943 19.46010876700736 -6.487403836999311
9.34156099479909 20.261854382354617 -6.9413943367388535
9.005871619252014 20.261854382354617 -6.9413943367388535
8.667438967967874 20.261854382354617 -6.9413943367388535
8.674510115498155 21.062827710385363 -7.395384836478406
8.316533920608366 21.062827710385363 -7.395384836478406
7.956024428922298 21.062827710385363 -7.395384836478406
7.593091455123435 21.062827710385363 -7.395384836478406
6.937762202422123 20.261854382354617 -6.9413943367388535
6.860397977326507 21.062827710385363 -7.395384836478406
6.490860658859539 21.062827710385363 -7.395384836478406
6.119346161357503 21.062827710385363 -7.395384836478406
5.976577109505831 21.86313396473875 -7.849375336217949
5.586392852027228 21.86313396473875 -7.849375336217949
5.194506925169285 21.86313396473875 -7.849375336217949
4.986289374155283 22.66286050041259 -8.3033658359575
4.746132153805535 23.462080382092694 -8.757356335697041
5.557051816368511 29.84337618775918 -12.389280333613414
5.006182269081214 29.84337618775918 -12.389280333613414
4.329783649231841 29.046606846237694 -11.935289833873869
3.791450264298104 29.046606846237694 -11.935289833873869
3.2519619668852657 29.046606846237694 -11.935289833873869
2.7891394257634983 29.84337618775918 -12.389280333613414
2.2323317430187863 29.84337618775918 -12.389280333613414
1.674844070400061 29.84337618775918 -12.389280333613414
1.0857505448000933 29.046606846237694 -11.935289833873869
0.5429579675283712 29.046606846237694 -11.935289833873869
1.9049858235729784e-15 29.046606846237694 -11.935289833873869
-0.5429579675283742 29.046606846237694 -11.935289833873869
-1.0857505448000826 29.046606846237694 -11.935289833873869
-1.6282123919379499 29.046606846237694 -11.935289833873869
-2.232331743018783 29.84337618775918 -12.389280333613414
-2.3232014133116228 25.05923693307899 -9.66533733517614
-2.6931487104760827 24.260855142243788 -9.211346835436592
-3.791450264298101 29.046606846237694 -11.935289833873869
-4.32978364923183 29.046606846237694 -11.935289833873869
-3.8911092374111136 23.462080382092694 -8.757356335697041
-4.164556883436605 22.66286050041259 -8.3033658359575
-4.576120094051202 22.66286050041259 -8.3033658359575
-4.986289374155275 22.66286050041259 -8.3033658359575
-5.394939782212716 22.66286050041259 -8.3033658359575
-5.586392852027226 21.86313396473875 -7.849375336217949
-6.2071865672763815 22.66286050041259 -8.3033658359575
-6.610535526043453 22.66286050041259 -8.3033658359575
-7.011870851651603 22.66286050041259 -8.3033658359575
-7.135734135399664 21.86313396473875 -7.849375336217949
-7.517928901800701 21.86313396473875 -7.849375336217949
-7.897833634230446 21.86313396473875 -7.849375336217949
-8.275332610027167 21.86313396473875 -7.849375336217949
-8.650310839345929 21.86313396473875 -7.849375336217949
-9.022654100185576 21.86313396473875 -7.849375336217949
-9.3922489731819 21.86313396473875 -7.849375336217949
-9.758982876156233 21.86313396473875 -7.849375336217949
-10.122744098409104 21.86313396473875 -7.849375336217949
-10.483421834748366 21.86313396473875 -7.849375336217949
-10.422603993878436 21.062827710385363 -7.395384836478406
-10.763119824053422 21.062827710385363 -7.395384836478406
-11.100357103665312 21.062827710385363 -7.395384836478406
-11.434213106971859 21.062827710385363 -7.395384836478406
-11.764586138200306 21.062827710385363 -7.395384836478406
-12.09137556252496 21.062827710385363 -7.395384836478406
-12.414481836721473 21.062827710385363 -7.395384836478406
-12.733806539488738 21.062827710385363 -7.395384836478406
-13.049252401428927 21.062827710385363 -7.395384836478406
-13.360723334676695 21.062827710385363 -7.395384836478406
-13.668124462168478 21.062827710385363 -7.395384836478406
-13.971362146542992 21.062827710385363 -7.395384836478406
-14.27034401866405 21.062827710385363 -7.395384836478406
-14.5649790057571 21.062827710385363 -7.395384836478406
-14.855177359150867 21.062827710385363 -7.395384836478406
-15.140850681615701 21.062827710385363 -7.395384836478406
-15.421911954290202 21.062827710385363 -7.395384836478406
-15.698275563188018 21.062827710385363 -7.395384836478406
15.604878773536685 20.82500659283959 -7.739828595642277
15.330159388155248 20.82500659283959 -7.739828595642277
16.255107908419422 22.396006869447763 -8.67877172121406
14.175989318657416 20.038568219996826 -7.270357032856393
13.319793275855275 19.25137098148609 -6.800885470070498
13.050347153182361 19.25137098148609 -6.800885470070498
12.77692576834504 19.25137098148609 -6.800885470070498
12.499612408145817 19.25137098148609 -6.800885470070498
12.218491544920612 19.25137098148609 -6.800885470070498
11.933648810807638 19.25137098148609 -6.800885470070498
11.645170971663038 19.25137098148609 -6.800885470070498
11.353145900631166 19.25137098148609 -6.800885470070498
11.538550276321097 20.038568219996826 -7.270357032856393
11.226701869757118 20.038568219996826 -7.270357032856393
10.911433701048118 20.038568219996826 -7.270357032856393
10.151368007502876 19.25137098148609 -6.800885470070498
10.271023224587923 20.038568219996826 -7.270357032856393
9.946075992071659 20.038568219996826 -7.270357032856393
9.61809908845841 20.038568219996826 -7.270357032856393
9.287192418690196 20.038568219996826 -7.270357032856393
8.953456780144199 20.038568219996826 -7.270357032856393
8.616993831928884 20.038568219996826 -7.270357032856393
8.277906063917676 20.038568219996826 -7.270357032856393
7.936296765529513 20.038568219996826 -7.270357032856393
7.592269994265945 20.038568219996826 -7.270357032856393
7.245930544014149 20.038568219996826 -7.270357032856393
7.184843531415212 20.82500659283959 -7.739828595642277
6.8195820836167975 20.82500659283959 -7.739828595642277
6.4522433250529385 20.82500659283959 -7.739828595642277
6.082939150667983 20.82500659283959 -7.739828595642277
5.940305706950294 21.61079060277163 -8.209300158428174
5.552489448748624 21.61079060277163 -8.209300158428174
5.162981848472681 21.61079060277163 -8.209300158428174
4.955476680845546 22.396006869447763 -8.67877172121406
4.547842035072646 22.396006869447763 -8.67877172121406
5.5187222368381255 29.446358224122747 -12.904015786287077
4.833528859529806 28.664020534435593 -12.434544223501181
4.300185382982787 28.664020534435593 -12.434544223501181
3.765532028311267 28.664020534435593 -12.434544223501181
3.2297316561064022 28.664020534435593 -12.434544223501181
2.7699014296148503 29.446358224122747 -12.904015786287077
2.216934309287791 29.446358224122747 -12.904015786287077
1.617081982709514 28.664020534435593 -12.434544223501181
1.07832838787298 28.664020534435593 -12.434544223501181
0.5392463237634915 28.664020534435593 -12.434544223501181
1.8919633997812515e-15 28.664020534435593 -12.434544223501181
-0.5392463237634945 28.664020534435593 -12.434544223501181
-1.0783283878729693 28.664020534435593 -12.434544223501181
-1.6632918892941797 29.446358224122747 -12.904015786287077
-2.2169343092877876 29.446358224122747 -12.904015786287077
-2.692947476351978 28.664020534435593 -12.434544223501181
-2.860559035996729 25.53248100326326 -10.556657972357621
-3.765532028311264 28.664020534435593 -12.434544223501181
-4.300185382982777 28.664020534435593 -12.434544223501181
-3.866664819097687 23.18072772579527 -9.14824328399994
-4.138822072559925 22.396006869447763 -8.67877172121406
-4.547842035072644 22.396006869447763 -8.67877172121406
-4.955476680845538 22.396006869447763 -8.67877172121406
-5.3616018404166725 22.396006869447763 -8.67877172121406
-5.766093804128218 22.396006869447763 -8.67877172121406
-6.1688293598096156 22.396006869447763 -8.67877172121406
-6.326312490488597 21.61079060277163 -8.209300158428174
-6.9685411108629385 22.396006869447763 -8.67877172121406
-7.092427894952652 21.61079060277163 -8.209300158428174
-7.472303149704672 21.61079060277163 -8.209300158428174
-7.8499022685314745 21.61079060277163 -8.209300158428174
-8.225110231083567 21.61079060277163 -8.209300158428174
-8.597812745380839 21.61079060277163 -8.209300158428174
-8.967896282626981 21.61079060277163 -8.209300158428174
-9.33524811179148 21.61079060277163 -8.209300158428174
-9.699756333948544 21.61079060277163 -8.209300158428174
-9.674251167526425 20.82500659283959 -7.739828595642277
-10.018948907384264 20.82500659283959 -7.739828595642277
-10.360594778349176 20.82500659283959 -7.739828595642277
-10.699084711779275 20.82500659283959 -7.739828595642277
-11.034315600361799 20.82500659283959 -7.739828595642277
-11.366185329520643 20.82500659283959 -7.739828595642277
-11.694592808521401 20.82500659283959 -7.739828595642277
-12.019438001264625 20.82500659283959 -7.739828595642277
-12.340621956757746 20.82500659283959 -7.739828595642277
-12.65804683925655 20.82500659283959 -7.739828595642277
-12.971615958066868 20.82500659283959 -7.739828595642277
-13.281233796997496 20.82500659283959 -7.739828595642277
-13.586806043455349 20.82500659283959 -7.739828595642277
-13.88823961717402 20.82500659283959 -7.739828595642277
-14.18544269856691 20.82500659283959 -7.739828595642277
-14.478324756696349 20.82500659283959 -7.739828595642277
-14.766796576850206 20.82500659283959 -7.739828595642277
-15.050770287717585 20.82500659283959 -7.739828595642277
-15.330159388155241 20.82500659283959 -7.739828595642277
-15.604878773536683 20.82500659283959 -7.739828595642277
15.507245526424136 20.57770652008235 -8.081914728038534
15.23424494616953 20.57770652008235 -8.081914728038534
16.746071485169107 22.888794518306025 -9.536343588777548
14.089172047086773 19.806174655160678 -7.597105107792197
13.240135578701828 19.033899971147274 -7.112295487545856
12.972300851731125 19.033899971147274 -7.112295487545856
12.700514636255487 19.033899971147274 -7.112295487545856
12.424859720988994 19.033899971147274 -7.112295487545856
12.145420073089173 19.033899971147274 -7.112295487545856
11.862280812579762 19.033899971147274 -7.112295487545856
11.575528186422343 19.033899971147274 -7.112295487545856
11.285249542244681 19.033899971147274 -7.112295487545856
10.991533301733785 19.033899971147274 -7.112295487545856
11.15794676539297 19.806174655160678 -7.597105107792197
10.844609377076443 19.806174655160678 -7.597105107792197
10.527968615689563 19.806174655160678 -7.597105107792197
10.208120933075625 19.806174655160678 -7.597105107792197
9.88516375793718 19.806174655160678 -7.597105107792197
9.559195466158338 19.806174655160678 -7.597105107792197
9.230315350838497 19.806174655160678 -7.597105107792197
8.89862359204672 19.806174655160678 -7.597105107792197
8.564221226305902 19.806174655160678 -7.597105107792197
8.227210115816082 19.806174655160678 -7.597105107792197
7.887692917426202 19.806174655160678 -7.597105107792197
7.545773051363885 19.806174655160678 -7.597105107792197
7.500692227323844 20.57770652008235 -8.081914728038534
7.139890948691067 20.57770652008235 -8.081914728038534
6.776914790109641 20.57770652008235 -8.081914728038534
6.411874317633702 20.57770652008235 -8.081914728038534
6.0448807261273885 20.57770652008235 -8.081914728038534
5.676045805393823 20.57770652008235 -8.081914728038534
5.517071563602839 21.348599070044713 -8.566724348284872
5.130048530938833 21.348599070044713 -8.566724348284872
4.741462835796417 21.348599070044713 -8.566724348284872
4.518318152798427 22.11893794088037 -9.051533968531206
5.478838548854341 29.03588680178691 -13.414820550748244
4.9357222687114115 29.03588680178691 -13.414820550748244
4.391102519752023 29.03588680178691 -13.414820550748244
3.738555868989259 28.268336174476552 -12.930010930501899
3.2980166086268623 29.03588680178691 -13.414820550748244
2.7498834110185943 29.03588680178691 -13.414820550748244
2.1399021856474554 28.268336174476552 -12.930010930501899
1.6512713142603987 29.03588680178691 -13.414820550748244
1.0706032754123775 28.268336174476552 -12.930010930501899
0.5353831791575552 28.268336174476552 -12.930010930501899
1.8784094303235026e-15 28.268336174476552 -12.930010930501899
-0.5353831791575582 28.268336174476552 -12.930010930501899
-1.0706032754123669 28.268336174476552 -12.930010930501899
-1.6512713142603879 29.03588680178691 -13.414820550748244
-2.200912572284615 29.03588680178691 -13.414820550748244
-2.749883411018598 29.03588680178691 -13.414820550748244
-2.749480685041543 24.427291191607004 -10.505962829270214
-3.738555868989256 28.268336174476552 -12.930010930501899
-4.2693789829486395 28.268336174476552 -12.930010930501899
-3.841156940711456 22.888794518306025 -9.536343588777548
-4.263829602483616 22.888794518306025 -9.536343588777548
-4.518318152798424 22.11893794088037 -9.051533968531206
-4.9233064979302945 22.11893794088037 -9.051533968531206
-5.13004853093883 21.348599070044713 -8.566724348284872
-5.728661221082825 22.11893794088037 -9.051533968531206
-6.128782280253156 22.11893794088037 -9.051533968531206
-6.527036452970068 22.11893794088037 -9.051533968531206
-6.923302427154592 22.11893794088037 -9.051533968531206
-7.0471871432309525 21.348599070044713 -8.566724348284872
-7.424639272596293 21.348599070044713 -8.566724348284872
-7.799829784915113 21.348599070044713 -8.566724348284872
-8.172644393522797 21.348599070044713 -8.566724348284872
-8.542969535478028 21.348599070044713 -8.566724348284872
-8.910692406155144 21.348599070044713 -8.566724348284872
-9.275700993605536 21.348599070044713 -8.566724348284872
-9.63788411267754 21.348599070044713 -8.566724348284872
-9.613723394861523 20.57770652008235 -8.081914728038534
-9.956264504084606 20.57770652008235 -8.081914728038534
-10.295772838691244 20.57770652008235 -8.081914728038534
-10.632144981153832 20.57770652008235 -8.081914728038534
-10.965278469259253 20.57770652008235 -8.081914728038534
-11.295071827319909 20.57770652008235 -8.081914728038534
-11.621424597084136 20.57770652008235 -8.081914728038534
-11.944237368336832 20.57770652008235 -8.081914728038534
-12.263411809180699 20.57770652008235 -8.081914728038534
-12.578850695989154 20.57770652008235 -8.081914728038534
-12.890457943021552 20.57770652008235 -8.081914728038534
-13.198138631691837 20.57770652008235 -8.081914728038534
-13.50179903948166 20.57770652008235 -8.081914728038534
-13.801346668489195 20.57770652008235 -8.081914728038534
-14.096690273604866 20.57770652008235 -8.081914728038534
-14.387739890305495 20.57770652008235 -8.081914728038534
-14.674406862058362 20.57770652008235 -8.081914728038534
-14.956603867326873 20.57770652008235 -8.081914728038534
-15.234244946169524 20.57770652008235 -8.081914728038534
-15.507245526424134 20.57770652008235 -8.081914728038534
15.405405561883253 20.32117863036356 -8.421539030917353
15.134197844801248 20.32117863036356 -8.421539030917353
16.039635914754346 21.83193931035596 -9.421539030917355
13.419068150464565 18.80791270387831 -7.4215390309173515
13.156924428636515 18.80791270387831 -7.4215390309173515
12.89077298017351 18.80791270387831 -7.4215390309173515
12.620694877385029 18.80791270387831 -7.4215390309173515
12.346772388677472 18.80791270387831 -7.4215390309173515
12.069088953494461 18.80791270387831 -7.4215390309173515
11.787729156900323 18.80791270387831 -7.4215390309173515
11.502778703814695 18.80791270387831 -7.4215390309173515
11.698599652927612 19.564907699626612 -7.921539030917349
11.394125330367217 19.564907699626612 -7.921539030917349
11.086180246853816 19.564907699626612 -7.921539030917349
10.77485820544299 19.564907699626612 -7.921539030917349
10.460254037844388 19.564907699626612 -7.921539030917349
10.142463575535103 19.564907699626612 -7.921539030917349
9.821583620568457 19.564907699626612 -7.921539030917349
9.497711916087171 19.564907699626612 -7.921539030917349
9.170947116549842 19.564907699626612 -7.921539030917349
8.841388757679853 19.564907699626612 -7.921539030917349
8.50913722614582 19.564907699626612 -7.921539030917349
8.17429372898284 19.564907699626612 -7.921539030917349
8.161379089087173 20.32117863036356 -8.421539030917353
7.8075953307388515 20.32117863036356 -8.421539030917353
7.451433303218908 20.32117863036356 -8.421539030917353
7.09300149693115 20.32117863036356 -8.421539030917353
6.732409093675976 20.32117863036356 -8.421539030917353
6.622967257030211 21.076827702572256 -8.921539030917359
6.243891433070012 21.076827702572256 -8.921539030917359
5.862913659293367 21.076827702572256 -8.921539030917359
5.480149985220785 21.076827702572256 -8.921539030917359
5.09571700437529 21.076827702572256 -8.921539030917359
6.51029987868651 28.61240465083622 -13.92153903091735
5.974766375889175 28.61240465083622 -13.92153903091735
5.437412901374881 28.61240465083622 -13.92153903091735
4.898403138217428 28.61240465083622 -13.92153903091735
4.357901274012183 28.61240465083622 -13.92153903091735
3.816071950862923 28.61240465083622 -13.92153903091735
3.2730802152303182 28.61240465083622 -13.92153903091735
2.7290914676571143 28.61240465083622 -13.92153903091735
2.1842714123855664 28.61240465083622 -13.92153903091735
1.6387860068822866 28.61240465083622 -13.92153903091735
1.0625775605623764 27.85997892606275 -13.421539030917355
0.5313697104618327 27.85997892606275 -13.421539030917355
1.8643280438701287e-15 27.85997892606275 -13.421539030917355
-0.5464839377936943 28.61240465083622 -13.92153903091735
-1.092801411286023 28.61240465083622 -13.92153903091735
-1.6387860068822757 28.61240465083622 -13.92153903091735
-2.184271412385563 28.61240465083622 -13.92153903091735
-2.729091467657118 28.61240465083622 -13.92153903091735
-2.63941008297196 23.34081960861511 -10.421539030917355
-3.182820266874597 24.094696745474693 -10.921539030917353
-4.2373738330572985 27.85997892606275 -13.421539030917355
-4.762926917465162 27.85997892606275 -13.421539030917355
-4.234343035931396 22.586583668844582 -9.921539030917344
-4.652802877755769 22.586583668844582 -9.921539030917344
-4.889788624758902 21.83193931035596 -9.421539030917355
-5.290530332045169 21.83193931035596 -9.421539030917355
-5.689660492541782 21.83193931035596 -9.421539030917355
-5.862913659293369 21.076827702572256 -8.921539030917359
-6.482600385439502 21.83193931035596 -9.421539030917355
-6.876168580667862 21.83193931035596 -9.421539030917355
-7.267642228335609 21.83193931035596 -9.421539030917355
-7.374951789354255 21.076827702572256 -8.921539030917359
-7.747631435944929 21.076827702572256 -8.921539030917359
-8.117951078947218 21.076827702572256 -8.921539030917359
-8.485797915410503 21.076827702572256 -8.921539030917359
-8.851059895624978 21.076827702572256 -8.921539030917359
-9.213625757253109 21.076827702572256 -8.921539030917359
-9.573385059221183 21.076827702572256 -8.921539030917359
-9.930228215360758 21.076827702572256 -8.921539030917359
-10.284046527789647 21.076827702572256 -8.921539030917359
-10.228157920295411 20.32117863036356 -8.421539030917353
-10.562321022667511 20.32117863036356 -8.421539030917353
-10.893266739736598 20.32117863036356 -8.421539030917353
-11.220894262231324 20.32117863036356 -8.421539030917353
-11.545103791634524 20.32117863036356 -8.421539030917353
-11.865796570582868 20.32117863036356 -8.421539030917353
-12.182874912949252 20.32117863036356 -8.421539030917353
-12.496242233598993 20.32117863036356 -8.421539030917353
-12.80580307781057 20.32117863036356 -8.421539030917353
-13.111463150352044 20.32117863036356 -8.421539030917353
-13.41312934420432 20.32117863036356 -8.421539030917353
-13.71070976892245 20.32117863036356 -8.421539030917353
-14.004113778626344 20.32117863036356 -8.421539030917353
-14.293251999612375 20.32117863036356 -8.421539030917353
-14.578036357577473 20.32117863036356 -8.421539030917353
-14.858380104447443 20.32117863036356 -8.421539030917353
-15.13419784480124 20.32117863036356 -8.421539030917353
-15.405405561883251 20.32117863036356 -8.421539030917353
15.299389901353782 20.05568365212509 -8.758598051426068
15.030048559366652 20.05568365212509 -8.758598051426068
15.925302305745065 21.53530705344266 -9.788674201246172
13.90415754312698 19.31501050591106 -8.243559976516012
13.070185172581729 18.57363483549524 -7.728521901605964
13.35676489300875 19.31501050591106 -8.243559976516012
13.076923666478434 19.31501050591106 -8.243559976516012
12.7930990823203 19.31501050591106 -8.243559976516012
12.505377596252162 19.31501050591106 -8.243559976516012
12.21384685102589 19.31501050591106 -8.243559976516012
11.918595649730603 19.31501050591106 -8.243559976516012
11.140392057102583 18.57363483549524 -7.728521901605964
11.31729273032877 19.31501050591106 -8.243559976516012
11.011424174916419 19.31501050591106 -8.243559976516012
10.702201433030336 19.31501050591106 -8.243559976516012
10.38971869691319 19.31501050591106 -8.243559976516012
10.074071151833504 19.31501050591106 -8.243559976516012
9.755354947091249 19.31501050591106 -8.243559976516012
9.433667166729863 19.31501050591106 -8.243559976516012
9.109105799963507 19.31501050591106 -8.243559976516012
8.781769711328593 19.31501050591106 -8.243559976516012
8.451758610568694 19.31501050591106 -8.243559976516012
8.119173022261997 19.31501050591106 -8.243559976516012
8.105214777704045 20.05568365212509 -8.758598051426068
7.753865659500394 20.05568365212509 -8.758598051426068
7.400154638703472 20.05568365212509 -8.758598051426068
7.323255835267303 20.795754872885574 -9.273636126336124
6.950957814121525 20.795754872885574 -9.273636126336124
6.576542463890126 20.795754872885574 -9.273636126336124
6.200123835115828 20.795754872885574 -9.273636126336124
5.821816588559407 20.795754872885574 -9.273636126336124
5.4417359602729105 20.795754872885574 -9.273636126336124
5.059997726497626 20.795754872885574 -9.273636126336124
6.4588691964242715 28.176368869559717 -14.42401687543667
5.92756635180496 28.176368869559717 -14.42401687543667
5.5433034527758664 28.913195695314016 -14.93905495034672
4.859706270163964 28.176368869559717 -14.42401687543667
4.323474313667747 28.176368869559717 -14.42401687543667
3.785925385013138 28.176368869559717 -14.42401687543667
3.247223226811178 28.176368869559717 -14.42401687543667
2.707531932957773 28.176368869559717 -14.42401687543667
2.167015898649146 28.176368869559717 -14.42401687543667
1.6258397703054286 28.176368869559717 -14.42401687543667
1.0841683954178127 28.176368869559717 -14.42401687543667
0.5421667723343707 28.176368869559717 -14.42401687543667
1.9022098893047858e-15 28.176368869559717 -14.42401687543667
-0.5272071402177712 27.43938789241534 -13.908978800526619
-1.0841683954178019 28.176368869559717 -14.42401687543667
-1.6258397703054177 28.176368869559717 -14.42401687543667
